0.6539205673774681,0.4215700342565948,0.5488224348505503,0,0,1,0
0.6483499504513187,0.7229368842727831,0.7500012029350601,1,0,0,0
0.5186937182004617,0.1803037967011888,0.8610837707633398,0,0,1,0
0.8194280560510602,0.790236088836293,0.4594441441754554,0,1,0,0
0.9891741716554362,0.27733581999212,0.19140429681538185,0,0,0,1
0.776260122090315,0.6761216870011278,0.5280803287262329,1,0,0,0
0.4797003950017179,0.39401837186230504,0.7877679086766894,0,1,0,0
0.4463950065567378,0.4301285427653979,0.3710911522738424,1,0,0,0
0.49154881757028435,0.227359714387115,0.12707633303989774,1,0,0,0
0.7650028786008748,0.9721616409321961,0.814212319185771,1,0,0,0
0.12514708832622679,4.1118216342065694e-2,0.23096379549572343,1,0,0,0
0.8823807049247135,0.7951730688230237,0.15506410275759352,0,1,0,0
0.3715327867780024,0.6120367233692564,0.6326864184300572,0,0,0,1
0.514136739599448,0.10677007265195171,0.8154357231204202,0,0,1,0
0.16888889408916852,0.8675977134642204,0.5247138777347836,0,0,0,1
0.5363518825915249,0.5544704035850098,0.19734345827710154,0,1,0,0
3.293635217243718e-2,0.6242115135279428,0.45963464388944064,0,0,1,0
0.919161786687699,0.9610860281851225,0.21515532360453105,0,1,0,0
0.22431291810608178,0.6268652795294417,0.144837027684099,0,0,1,0
0.6886225212581422,0.2852203400141452,0.3578602893862647,0,0,0,1
0.3281070692932203,0.4450789081334504,0.9505038205357802,0,1,0,0
0.44692541711526246,0.7232837312509067,0.9406308614222726,0,0,0,1
3.593172378778953e-2,9.568559149483546e-2,0.6757568762763683,0,1,0,0
4.999748251960756e-2,0.5001129097046989,0.13442014217369513,0,0,1,0
0.5676112511088377,0.4002856432204166,0.8203376155133705,0,0,1,0
0.5863864024110675,0.8334050646847012,0.8767433305078095,1,0,0,0
0.45559940876394533,2.962297497028754e-2,0.23075333863433667,1,0,0,0
0.7936840985088488,0.6229251298324837,0.6558445380950916,1,0,0,0
0.11220688414677571,0.2081540156246925,0.9169073613224829,0,1,0,0
0.47199217207569755,0.968493589863877,0.8117528037427549,0,0,0,1
0.1367072043841061,0.7926336318795121,0.2091850995660013,0,0,1,0
0.15670738621523583,0.2305748114294982,0.27622179202500685,1,0,0,0
0.4762158078773643,0.17285744993266616,0.3677376952424022,1,0,0,0
0.7220036139559559,0.41093498961747,0.6768480790457413,0,0,1,0
0.718610196196516,0.9347681392261907,0.49668844037058413,0,1,0,0
0.7139681673338688,0.7213541414570325,0.3803493410187956,0,1,0,0
0.48423955326618195,0.23553737050245893,0.6215266131109477,0,1,0,0
0.253909040277842,0.7353857009739245,0.5618494098767467,0,0,0,1
0.8371745960404408,0.9715840693231533,0.7864064471448126,1,0,0,0
0.8808514912228361,0.4919084040985501,0.6675277220503429,0,0,1,0
0.7432945194446144,0.1855413886125291,0.3807396249054301,0,0,0,1
0.6344332455043523,0.6136333502612593,0.4186313407099892,0,1,0,0
0.21409006590837476,0.1771642361353546,0.6947020144541193,0,1,0,0
0.3643707488703184,0.49321996622043385,0.9728860893176564,0,1,0,0
0.9134155841048247,6.84271297879423e-2,0.6946763410334028,0,0,1,0
0.3788274495887093,0.12108880621213458,0.7762111238284367,0,1,0,0
0.33963511265671575,0.29681580805239405,0.9415814544519076,0,1,0,0
0.38005655197375343,0.26855574653775693,0.8277905884353892,0,1,0,0
0.22448866522867628,0.1607860247304841,0.1106313138497349,1,0,0,0
0.9325763026097987,0.6919878146389761,6.600231319542449e-2,0,1,0,0
0.734542349734567,0.5502254938764272,0.522347580180914,1,0,0,0
0.10483264114936441,0.716164855654981,0.37841917020506644,0,0,1,0
0.7456127467252903,0.41861522012075525,0.5812737575792651,0,0,1,0
0.19339433548036855,0.27991270343743835,0.16917326450927372,1,0,0,0
0.1456441351043788,0.49590161813514755,0.19140794239017833,1,0,0,0
0.6941795508271446,0.7498752884936349,0.19329643079399472,0,1,0,0
0.4004897544583922,0.7802107650018401,0.1343688506797479,0,0,1,0
0.3823741325868485,0.32014719540633985,0.29117692232232584,1,0,0,0
0.1866640437048971,0.7558652096147352,0.27556166041264374,0,0,1,0
0.549409386440017,0.8796819142026421,0.44820177445518883,0,1,0,0
0.918170244100441,0.6410763009005757,0.7049734822355357,1,0,0,0
0.3208997923950544,0.6501027408180545,0.47652154496181687,0,0,1,0
0.3325946184402516,8.196558610374349e-2,0.2045338800810551,1,0,0,0
0.6765490743737913,0.976438558570807,0.9687819174064237,1,0,0,0
0.4296805576518735,0.7852049101001107,0.5013275592764986,0,0,0,1
0.6399526930862592,0.6130949470005745,0.47789596148896984,0,1,0,0
4.6435959633075785e-2,0.8996254133231657,0.5422244837483406,0,0,0,1
0.8356453912773106,0.4793122486923215,0.40158532834782823,0,0,0,1
0.20413889102312843,4.6498075722758325e-2,0.5187062180566399,0,1,0,0
0.7317916311504661,3.306025000056312e-2,0.47144609304960816,0,0,0,1
0.2714917211796367,0.1634262498348601,0.8854768261636744,0,1,0,0
0.18636204080382857,0.4325011936076032,0.40378626475142243,1,0,0,0
0.29726734458864434,3.564182639747593e-2,0.1629475625379263,1,0,0,0
0.8320795239161535,0.310556846291261,0.6190390477589333,0,0,1,0
0.7667634445776551,0.7160448632301061,0.31066876571936264,0,1,0,0
0.7023962775009177,0.6094192649998783,0.5800654890157363,1,0,0,0
4.2550097601681824e-2,0.34173331581962463,0.6073419456980186,0,1,0,0
0.30328070714876365,5.600445242483476e-2,7.784511009691475e-2,1,0,0,0
0.9789745407093952,0.13791893323230264,0.3467423558544448,0,0,0,1
0.19194906748354235,4.486116729067624e-3,0.8488029433133665,0,1,0,0
3.243695273845948e-2,0.30683129068918735,0.23603238222935807,1,0,0,0
0.18084850442318745,0.8282927601767954,0.8078976943870989,0,0,0,1
0.7475792234747632,0.3282294878837374,0.19960851527004497,0,0,0,1
0.20849611110218558,0.6431447238911098,0.9659257951115826,0,0,0,1
0.5708914834496105,0.20790738838932332,0.4533808568113348,0,0,0,1
0.7329695249467371,0.7206747534026333,0.8926709838327477,1,0,0,0
0.4456193680436068,0.9890822568611973,0.43067055257863285,0,0,1,0
0.6356189740095449,0.8700536950810968,0.4782491449802623,0,1,0,0
7.546780267720277e-2,0.9094513208167102,0.8609520244291861,0,0,0,1
0.3254300517606731,0.4535629277321521,0.5627600025664846,0,1,0,0
0.2154155638821057,0.8491640688324779,0.45804179662636557,0,0,1,0
6.372832361009706e-2,0.17533708989952024,0.2660867921275475,1,0,0,0
0.16418578588063049,0.3616006537475803,0.758496385514749,0,1,0,0
0.5270387650479104,0.9871948685120339,3.839954310541083e-2,0,1,0,0
0.8565508774709086,0.7320624738208289,0.40029487865199365,0,1,0,0
0.6120937421557832,0.4553270749254451,0.36053290275055805,0,0,0,1
0.5804247206183152,0.35011867712738176,6.1622139480774885e-2,0,0,0,1
0.2423019708852704,0.6275246026809657,0.784236093602222,0,0,0,1
0.20631338352959327,0.2641071452017022,0.7027724859293837,0,1,0,0
0.5912337004547324,0.10708256679574901,0.919961692892637,0,0,1,0
0.6910589357034563,0.43294364407430164,0.43547569639215344,0,0,0,1
0.2279457546236897,0.25409291777197585,0.3351699547880297,1,0,0,0
0.12135799155603733,0.45698759593177984,0.5370758424409062,0,1,0,0
0.3745624039551686,0.9375698925085755,0.5913423301868509,0,0,0,1
0.5016961859418331,0.8376014957105119,0.5579622949167281,1,0,0,0
0.178535702945415,5.973714120966822e-2,0.9411768705606748,0,1,0,0
0.5694788967315944,3.369045806732396e-2,0.778556594421769,0,0,1,0
0.19577638144853815,0.9384972356911708,0.5214757541583516,0,0,0,1
0.2262406351488292,0.4455058212416,0.1702021825588017,1,0,0,0
0.2786898078631911,0.9893662930558184,0.8556066928756029,0,0,0,1
0.14694651267346426,0.47758097152707657,0.2731277223489882,1,0,0,0
0.7476516392160396,0.1579168585394627,0.5415881483199797,0,0,1,0
0.9832381481339242,0.13607853499262734,0.3901744419472827,0,0,0,1
0.7677418342898766,0.3242653376872603,0.47857000619753765,0,0,0,1
0.45914065036094376,0.6313387622201271,0.3756701743896885,0,0,1,0
0.8638885454885762,0.20004794916886037,0.5329193606099528,0,0,1,0
0.14270319184952995,0.9440886747818139,0.12083396042089423,0,0,1,0
0.7203196625672513,0.11463177651451784,3.390196949518265e-2,0,0,0,1
0.9815988733887294,0.2918301813699432,0.4402004304398729,0,0,0,1
0.3861364917611382,0.3228552128676384,0.7158002060274048,0,1,0,0
0.9893145312666246,0.8816789004473292,0.8235817298946216,1,0,0,0
0.22095274815498878,0.19751046727719357,0.17618676499343644,1,0,0,0
0.25678278549508027,0.564805957646772,0.5059393693577615,0,0,0,1
0.7361471465636794,0.5027426270647443,0.4270356129445546,0,1,0,0
0.8367916940365147,6.70118839497379e-2,0.42072737554944195,0,0,0,1
0.6337002597189313,0.8574775792032824,0.4226224659893053,0,1,0,0
0.9855682572546623,0.5801634238074557,0.3454741722347071,0,1,0,0
0.5098005594461544,0.6506967222507666,0.6670772380860189,1,0,0,0
0.3544773447054125,0.48698880758461216,0.7887161079813158,0,1,0,0
0.1755796479200188,0.7910410934311928,0.8308429308557782,0,0,0,1
0.666711386803741,0.822662701239273,0.5542899262230404,1,0,0,0
0.32109277735329667,0.4376334036160857,0.9466315750657713,0,1,0,0
0.6033512048801061,0.7445917156948009,0.9860171166450665,1,0,0,0
0.700815325355688,2.1286047769476846e-2,0.17448595106238252,0,0,0,1
0.16102853954191076,4.754738486577492e-2,7.426334791258193e-2,1,0,0,0
0.461857969063561,0.8794799485318955,0.139341087835943,0,0,1,0
0.32961691212645794,0.44070510467639135,0.22325909903730634,1,0,0,0
0.5825853559746595,0.2915729666815666,0.5026879202793831,0,0,1,0
0.1495318324384357,0.77911936118405,0.5338732692973612,0,0,0,1
0.10888478462179452,0.3962296367157959,0.9714444609125986,0,1,0,0
0.26448492032156656,1.690029307374863e-2,0.46830977870988455,1,0,0,0
0.19018675659143225,0.8184204209430691,0.16088118246174476,0,0,1,0
3.7302039372408724e-2,0.42184119523541963,0.8681617458313001,0,1,0,0
0.5047686059969617,8.638458414035799e-2,7.6169617448368365e-3,0,0,0,1
0.23609810674331444,0.4705709511481805,0.5380870195299358,0,1,0,0
0.3067518161080044,0.2790278490211745,0.40563270719410716,1,0,0,0
0.2945795994292125,0.2999097997707657,0.7633492539108856,0,1,0,0
0.3501255541936422,0.8976908711933552,0.6333812532432391,0,0,0,1
0.5369416033009574,0.5092032504319225,0.9327891854350746,1,0,0,0
0.3062002249728736,0.6871623508955355,0.5291149198129413,0,0,0,1
0.31692447211696984,0.5408357711363482,0.446873996263771,0,0,1,0
0.9403714803610609,3.6545265894341594e-2,0.35604751157752734,0,0,0,1
0.6384138633296143,0.636953196626301,2.82032882630745e-3,0,1,0,0
0.30781630091736834,0.10358805339497412,0.8140745333752765,0,1,0,0
0.9149941298964258,0.34089982069832725,0.9027037766728446,0,0,1,0
0.6019295894747817,0.6217424425237391,0.3560951191396401,0,1,0,0
0.22213977149800523,0.30478760652106185,0.7754331729209133,0,1,0,0
0.46944762073358437,0.8167933014963226,0.24895397297132205,0,0,1,0
0.8811370144476433,0.869885960353359,0.5668726682498694,1,0,0,0
0.40759546659877366,0.4885518685728637,0.5689351167514481,0,1,0,0
0.3569863760298363,0.9060170331621221,0.11241931861734578,0,0,1,0
0.3847391840403741,0.3183339771141255,4.534932315696605e-2,1,0,0,0
0.5347067632990957,0.3683705167372452,0.2052186496601197,0,0,0,1
0.17963289914683644,0.26377006555310645,0.5340933455615652,0,1,0,0
0.3472799638459324,0.10496152760392008,0.8223497407251324,0,1,0,0
0.8139860045729698,0.1265166079975012,0.8155473905127612,0,0,1,0
0.41995169266263666,0.5712921360715096,0.991703042529518,0,0,0,1
0.41154422633457577,0.7269734080351228,0.4888802892511982,0,0,1,0
0.20997569802209204,0.4095838978930467,0.8558249883827923,0,1,0,0
0.7788778245126106,0.7665566298962586,0.442317959851393,0,1,0,0
0.8557861515992408,0.40049779384949924,0.758986783713934,0,0,1,0
0.4633089386329271,0.8481313205151174,0.2131724958549358,0,0,1,0
0.9057100397400107,0.20994012328336054,0.22947744228142863,0,0,0,1
0.9281861401310093,0.18299809560154479,0.43225764403208233,0,0,0,1
0.6339341985705894,0.3492238499373418,0.7828276925085004,0,0,1,0
0.24589066609332855,0.13436293394548426,0.24692207118133302,1,0,0,0
0.25639605994943804,0.5327392691054224,0.7006175276400274,0,0,0,1
0.4420910079120065,0.8050140976217827,0.8163955416244643,0,0,0,1
7.458126899457806e-2,0.5711396809048118,0.8859188909391492,0,0,0,1
0.19924684524880398,0.18350015079428028,0.33404966272607506,1,0,0,0
0.998968676930078,0.746299011228826,0.8057217875801873,1,0,0,0
0.8651669973464043,0.14942122493958154,0.37328547052204997,0,0,0,1
9.866657455524408e-2,0.7780513780048587,0.30545023639743885,0,0,1,0
0.575509505548936,0.19493906544518225,0.8228793887466387,0,0,1,0
0.36683055157582,0.37122321899999033,0.4918614152054718,1,0,0,0
0.8583668710479208,0.993874464573438,0.7831915763191314,1,0,0,0
0.8582021974237136,0.19408013059232554,0.1520782905168846,0,0,0,1
0.2873865957917273,0.3754832093564865,5.326496539983616e-2,1,0,0,0
0.6924765950575124,0.3869618016197317,0.8928195896446315,0,0,1,0
0.7325951860494974,0.8382450329338266,0.8749806081008217,1,0,0,0
0.20374674423790917,0.6195219914296614,0.8664858373228811,0,0,0,1
0.6064496452971077,0.15265597284316434,0.3428088459037065,0,0,0,1
0.7841630453702414,0.41048091808459686,9.12711381752519e-2,0,0,0,1
0.14975127553830891,0.6640587169699711,0.17096803882226708,0,0,1,0
5.2106068202947164e-2,2.084155213589589e-2,0.6784427131561707,0,1,0,0
0.6132386617035014,0.11822001606588117,0.6799102969893139,0,0,1,0
0.8643844903780097,0.10156347819834977,0.3595627979918631,0,0,0,1
0.8744101958026816,0.8533557391156094,0.25472968285196107,0,1,0,0
0.5128983786399274,0.17683578260004718,0.38436135386223247,0,0,0,1
0.7810477614646053,0.6243084008384806,0.5415975157965492,1,0,0,0
0.5406664327524987,0.2424594209896006,0.9029508330793744,0,0,1,0
9.018262245463904e-2,0.967970231813358,0.7603048378874501,0,0,0,1
0.5240769290427628,0.5365033385630312,0.6953425462554873,1,0,0,0
0.6198048038847982,0.2908342985335578,0.6209804144247036,0,0,1,0
0.5753583849802985,0.6786871820585872,0.3414198314553961,0,1,0,0
0.5684407567517172,0.4316250617491565,0.39584426320401633,0,0,0,1
0.30955403376998947,0.24125679880355688,0.3247043652006968,1,0,0,0
0.7515154270546224,0.8357370805245282,0.6585513461246969,1,0,0,0
0.11673670025487526,8.205268605881222e-3,7.749092705487926e-2,1,0,0,0
0.6931629246425505,4.064846460411886e-2,0.6384775489650604,0,0,1,0
0.866424956341748,0.2709231234630006,0.18482875789514497,0,0,0,1
0.8981661215619517,0.6416108937079358,6.229561613075496e-2,0,1,0,0
0.8997326197241996,0.400049855100863,0.7402221069763862,0,0,1,0
0.8422924545226375,0.506791696288947,0.33027797250594226,0,1,0,0
0.1796339068638334,0.7737913077782804,0.5551708869342723,0,0,0,1
0.12409588340937672,0.8827546820639153,0.8722208273347393,0,0,0,1
0.347171558745092,0.6600643723686689,0.25410443350104706,0,0,1,0
0.6627753398574957,0.33355711304852254,0.12896223730395928,0,0,0,1
0.4501037396014119,0.8521227045800751,0.5594886076937883,0,0,0,1
0.9636048494761306,0.46492198456225975,0.7486954329362746,0,0,1,0
0.4832338737495604,0.37414681943509975,0.7295741901836209,0,1,0,0
0.6993640335737851,0.8668449788371145,0.8629522863595972,1,0,0,0
0.14339903945797638,0.8312107466652722,0.7215304714841343,0,0,0,1
0.767990672029882,0.5015767456082308,0.8823505956380683,1,0,0,0
0.36895972728849824,0.362647062819094,0.7017356534403923,0,1,0,0
0.8069250023866011,0.8679479815269934,0.7609511043821028,1,0,0,0
0.19063764985771126,0.21021970343569218,0.9612768996447726,0,1,0,0
9.388871707419644e-3,0.8933329935154076,0.6775554995760334,0,0,0,1
0.30645118813593186,0.1501292999661229,0.1548298969762244,1,0,0,0
0.3470684980292774,0.400064839984139,0.3960943034463925,1,0,0,0
0.7926134603087737,0.9758267103301591,0.31568647152101337,0,1,0,0
0.7840329858471241,0.21550014940136875,0.7565548014942639,0,0,1,0
0.9569167139452427,0.6993451049627725,0.38129654674693503,0,1,0,0
0.4389993218112299,0.8157534269305805,0.9412441416161544,0,0,0,1
0.46742681968550615,0.41946354721897683,0.5130846842700448,0,1,0,0
9.757077158566696e-2,0.4090081753977747,0.3391959171433018,1,0,0,0
0.944262968831255,0.7616458910541101,0.16518868325573732,0,1,0,0
0.17756695303528003,0.7265928776742491,0.32612759415075965,0,0,1,0
0.22278586248953858,0.17854694130856685,0.8870824994003951,0,1,0,0
0.6694923607879947,0.15679128085311456,0.5552674766257907,0,0,1,0
0.8824494335425884,0.6607965795888006,0.3556466022412429,0,1,0,0
0.3369110443553235,0.12595466103994057,0.4517368469682207,1,0,0,0
0.6398058860899455,0.20777296426958525,0.4044021088014843,0,0,0,1
0.952853676917563,0.6696816535825624,0.2915290964947327,0,1,0,0
7.203392292875699e-3,0.9709044429439887,0.4075859042531452,0,0,1,0
0.6989729892711166,3.4954649696173345e-2,0.8541762606760509,0,0,1,0
0.584385006072819,0.5726797086679872,0.3451444874675319,0,1,0,0
0.2846091104094274,0.6004447695298404,0.17525954951967948,0,0,1,0
0.4987742814721622,0.9835642683538196,5.458799667326131e-2,0,0,1,0
0.14287310602640202,0.3898006214120834,0.25786805752711073,1,0,0,0
0.8394921932155476,0.2531848538526379,0.3779095367647559,0,0,0,1
0.70285097232159,0.8901302672848911,0.3914305312229053,0,1,0,0
4.448560769024501e-2,0.9318083431288414,0.6453453573301039,0,0,0,1
0.7135659611206172,0.753320804568507,0.1722156625390393,0,1,0,0
0.5110370887282661,0.8384898564947566,0.8427893082941086,1,0,0,0
0.8311671101536119,0.9538938559992677,0.4777375777322673,0,1,0,0
0.8973065189322641,0.9059084457123382,0.6123616135630704,1,0,0,0
0.8606202881865709,0.9834688475995935,0.6949536103975854,1,0,0,0
0.8970639785380387,0.8913327651772883,0.9397158080645448,1,0,0,0
0.6313009232271213,5.590822746708379e-2,0.645518097100494,0,0,1,0
0.8382173585571736,0.8314746566816525,0.3885719984567012,0,1,0,0
0.1263003354228659,0.4879475213622434,0.16875382680478468,1,0,0,0
0.46242403386585706,4.153490560276263e-2,0.2507200117945211,1,0,0,0
0.2396646327628803,0.9325633837934616,0.6817389840370583,0,0,0,1
0.2626534636007368,8.161556042470497e-2,0.6831477467567545,0,1,0,0
0.6922793391573435,0.8944406824351635,0.26083548054226136,0,1,0,0
0.5156831675483357,0.19671010013999435,0.9645694449179357,0,0,1,0
0.9571265318594618,0.895717734875794,0.3009375444741532,0,1,0,0
0.8415008331020729,0.6386109848308886,0.7231113811076576,1,0,0,0
0.9086921827181812,0.4272304113161963,0.3475721049706523,0,0,0,1
0.45286573580262035,0.24724701269006066,0.6718823053451034,0,1,0,0
0.4763695299970657,0.35200192526164387,0.15854637431531693,1,0,0,0
0.4148608852331209,0.9423376792060904,0.4126141412281509,0,0,1,0
0.91536933469216,0.8187710291724747,1.786783390468638e-2,0,1,0,0
0.2932116601722591,0.6541115736951312,0.3004880649928853,0,0,1,0
0.7545266073826925,0.11584136821822033,0.8657641871544185,0,0,1,0
0.3505044060510235,0.9351937372283184,0.532168773772057,0,0,0,1
0.2932183513288634,0.8418148914037101,0.3541025882001777,0,0,1,0
0.6459848479700768,0.3482541868674468,0.13408646496683463,0,0,0,1
0.36608965658288384,0.8367265901767146,0.6834005639884769,0,0,0,1
9.755148308674644e-2,0.3036975376866259,0.7219765469980216,0,1,0,0
0.9144875561373026,0.49788897180997205,0.43342596412772416,0,0,0,1
6.461439975331162e-2,0.30083610686501594,0.8072861407497746,0,1,0,0
0.9230602783028289,0.7239150849737727,0.3928922006309691,0,1,0,0
0.25820617817809743,0.6430492994924749,0.3528469300031557,0,0,1,0
0.8668448104272589,0.12402260362600426,0.9992281806310718,0,0,1,0
0.8987185969890185,0.8682850890297188,0.9440214875687555,1,0,0,0
0.6186653553700786,0.7498130009241629,0.8513863687083368,1,0,0,0
0.708558221398876,0.1806102584245005,0.8517377341475193,0,0,1,0
0.9999020765182455,0.3461965000933168,0.7334960215825314,0,0,1,0
0.7565243806255112,0.6909222799666489,0.32977191500255876,0,1,0,0
0.22019440632458165,3.178187216488104e-3,5.756394214979743e-2,1,0,0,0
0.9387320212447429,0.5351958382823617,0.6641818832472056,1,0,0,0
0.2245692917022447,0.25536678749626784,0.6931579105595568,0,1,0,0
0.7170029304468065,3.9910638535531784e-2,0.22190089059009976,0,0,0,1
0.2759016678111109,0.8730950769303839,0.3387315097111553,0,0,1,0
0.24027473286838597,8.62661905384946e-2,0.18726192178045287,1,0,0,0
0.28491918279271966,0.12703099757994007,0.48639376942231005,1,0,0,0
0.5866377274900777,0.6724569530055534,0.43162620824934994,0,1,0,0
0.315862393151343,0.29647951356386304,0.802622634713699,0,1,0,0
0.26290178866031655,0.8161620713300638,0.9712918322824858,0,0,0,1
0.9871486669527519,7.674027909366665e-3,0.6950646891375284,0,0,1,0
0.3417714030366811,0.592938635039279,0.34293612993384326,0,0,1,0
6.874729079407227e-3,0.5633333755544535,0.32790470357313894,0,0,1,0
0.22637303728998537,9.93919066821406e-2,0.6997559503513598,0,1,0,0
0.26112609587811775,0.8762284814458304,0.5837270381701217,0,0,0,1
0.39202025920717165,0.8388480776450123,0.5538583242038199,0,0,0,1
2.535446985884582e-2,0.4082027898591639,0.5727388411998017,0,1,0,0
0.24667765856802448,0.3389977736438107,0.693648990101087,0,1,0,0
9.103676038263175e-2,3.59409586720808e-2,0.25713496527895285,1,0,0,0
0.30134229723384987,0.21003061698479109,0.2734906544870105,1,0,0,0
0.10032313389032044,0.12144417633337701,0.5125376091244439,0,1,0,0
0.6083453121667556,0.6196033513201585,0.5485788617338553,1,0,0,0
0.4633098508924699,0.8506528738175537,0.968906235526417,0,0,0,1
0.15221246681853662,0.15331900744129567,0.8151737487209924,0,1,0,0
0.26484244004834034,0.7845487550073184,0.5497612642400415,0,0,0,1
0.7204919538443578,0.9754783403263158,0.2810220193305005,0,1,0,0
0.20315316227069646,0.512988168342645,0.18080114133414582,0,0,1,0
0.5961995805834089,0.5970330291425133,0.6875587182180795,1,0,0,0
0.2571884276962956,1.6935066780895958e-2,0.8310521166423114,0,1,0,0
0.16961301303140452,0.22900256405856056,0.20354165535425717,1,0,0,0
0.31747855924382506,0.5565601782631008,0.45872406803321686,0,0,1,0
0.39594882652299324,0.9777165539106089,0.972189369157895,0,0,0,1
0.5114631691044217,0.757849109771264,9.271173154462298e-2,0,1,0,0
0.46139955818746825,0.7739280749816059,0.30089513336855844,0,0,1,0
8.139155468712589e-2,0.5747691115740413,0.49056393568390344,0,0,1,0
0.9346282960981206,0.32090528911201577,0.11217276825396094,0,0,0,1
0.7812885578401346,7.007557013685728e-2,0.7478058305315408,0,0,1,0
0.7862462667387332,0.36312881234992556,0.8361292469833715,0,0,1,0
0.46622796218541895,7.374609169885582e-2,0.4503334325372944,1,0,0,0
0.6851095665650452,0.19851633087255072,0.8316888252570581,0,0,1,0
0.28164939949177936,0.8071156221849415,0.48807528780641707,0,0,1,0
0.5059869330375292,0.9111864517813376,0.7054944555637922,1,0,0,0
0.7757400175889814,0.6348771239778263,0.4816393183838693,0,1,0,0
0.785170047340895,0.7609220237044182,0.23274100944546994,0,1,0,0
0.3827719870089127,0.8424080349643587,0.8803164388890358,0,0,0,1
0.8039175392283385,0.8432920278894681,0.7733449881671696,1,0,0,0
0.10362610379279202,0.6497303189126461,0.3101835944364758,0,0,1,0
0.9783724702314717,0.16263631552355806,0.4525157755050154,0,0,0,1
0.37803273585723496,0.33597405104724454,0.4012166083581775,1,0,0,0
0.9566117740918313,0.6347149995137681,0.47852690668989484,0,1,0,0
0.7311960906756699,0.23988246315654116,0.7455112634725748,0,0,1,0
0.6872830803208273,0.28039205011376545,0.6525071368415741,0,0,1,0
0.45633520013619167,0.6512786323829723,0.8515308283004087,0,0,0,1
0.9982807772893817,0.2976365110281668,0.8383970982382881,0,0,1,0
0.1236793705443292,0.9899322398717642,0.636444974543603,0,0,0,1
8.694238173129853e-2,0.36624989566293376,0.6179867786456889,0,1,0,0
0.45207234684977815,8.98527294554946e-2,0.5396005323593608,0,1,0,0
0.8546042003322906,0.2964293796982277,0.16569458342648546,0,0,0,1
0.1731661509963719,0.7130383417822613,0.6835577662851359,0,0,0,1
0.15454494689009868,0.7845135064030991,0.17035901751483495,0,0,1,0
0.7755986380678771,0.6880099824954361,0.44490009614297044,0,1,0,0
0.4517743043424983,0.1847878990728936,0.27283564527935156,1,0,0,0
0.2014022495088078,0.18777417456221468,0.6127803838087399,0,1,0,0
0.4881975384216958,0.3618059736832354,0.6152659049828756,0,1,0,0
0.4791811771800313,0.9621132042612518,0.536061004586437,0,0,0,1
0.7823928375046597,0.10353651506721084,0.3820942397403039,0,0,0,1
0.13646870975558867,0.9477252831866055,0.6186985583498198,0,0,0,1
8.933229720200597e-2,0.4962335439259483,0.5613262726225786,0,1,0,0
0.22995388653898285,0.5025306491022931,0.69651760708976,0,0,0,1
0.6630548427547377,0.18644311907546884,0.12296624500358833,0,0,0,1
0.938151570904144,0.5066114818542754,9.229959728906623e-2,0,1,0,0
0.8651695403417031,9.333962699166676e-2,0.9779145825866763,0,0,1,0
0.5412963147454098,0.7808597518700485,0.2171401807506771,0,1,0,0
0.920116280420172,0.8684222395008817,0.6344682152484079,1,0,0,0
0.9214733206085376,5.2594817125337534e-2,0.3031015092498711,0,0,0,1
4.6432552110775016e-2,0.8495421482490927,0.16502698795126258,0,0,1,0
0.8016344431074865,0.6194233921109348,0.3919150953984668,0,1,0,0
0.20649793706954422,0.6055754439560882,0.3946477502759428,0,0,1,0
0.1448192044001272,0.9186471205439523,0.8060123778300371,0,0,0,1
0.39185065338315794,7.416131526480407e-2,0.39589662082164556,1,0,0,0
0.3295921222734558,0.6403036063354192,0.5939000647888967,0,0,0,1
6.452773211693719e-2,0.14075875805593874,0.5319893644416088,0,1,0,0
0.9181029681656679,0.4129133600266083,0.9631486228688128,0,0,1,0
3.6136919385388877e-3,0.9321914201530331,0.13484593785256316,0,0,1,0
0.7223329190788875,0.7944172415327025,0.5048445424965978,1,0,0,0
0.27984095858963254,0.38797889755939485,0.8677787311033099,0,1,0,0
0.9831440802218937,5.9003628456966495e-2,0.49870813735563024,0,0,0,1
0.872889923391415,0.6147577604841145,8.603235888005878e-2,0,1,0,0
0.1790606276255161,0.6523341224460609,8.962098753419967e-2,0,0,1,0
9.454072475161845e-2,0.16618129896765554,9.172466283316916e-3,1,0,0,0
0.5350984833562572,0.15527078529019545,0.6542855339173778,0,0,1,0
0.8110047990476769,0.22119543190577284,0.6013828154267661,0,0,1,0
0.5430673653189609,0.21994863820599997,0.14730181137360987,0,0,0,1
0.41269482541160396,5.869484149693405e-2,0.30888068641571176,1,0,0,0
5.981386014862189e-2,0.18685588319808566,0.5452097188589281,0,1,0,0
0.9120620950183383,0.9112305528329446,0.7439188941691889,1,0,0,0
0.8320578644183628,0.410586914912903,0.38114388438304647,0,0,0,1
0.3503196453050622,0.41053646827329715,0.1877407153609133,1,0,0,0
0.6617228934725788,0.8378956891598871,0.4471863594439952,0,1,0,0
0.9846212436289342,0.3823116473180791,0.4112491305531697,0,0,0,1
0.5832133652440697,0.8413053993003147,0.8701846704931296,1,0,0,0
6.668499540802286e-3,0.9249417481164873,0.2093933596120955,0,0,1,0
0.40166293033951994,0.41703960731662637,0.4540743461855744,1,0,0,0
0.17889406256698603,0.74103530027109,0.5589079062687831,0,0,0,1
0.1343079860415285,0.8649329431516609,0.8532995331961349,0,0,0,1
0.3609960004444829,0.7704053971477592,0.671165128161405,0,0,0,1
3.964835832521396e-2,0.19778461541309456,0.3164317239132718,1,0,0,0
0.7319190221468151,0.5692675943582398,0.2924553592448095,0,1,0,0
0.38932488991269054,8.737145142689429e-2,5.090652622017744e-2,1,0,0,0
4.357374936959213e-2,0.4314061884107129,0.7707170339182342,0,1,0,0
6.78270122753476e-2,0.870887214316996,0.3882739541732806,0,0,1,0
0.36292450142691635,0.9447833448367372,0.533708459958283,0,0,0,1
0.6694741545622903,0.9652409232539062,0.361852692788195,0,1,0,0
0.6360887040955562,0.948323692482102,0.8919561884596404,1,0,0,0
0.2849461900881768,0.7343042723797787,0.9079494837072336,0,0,0,1
0.3028269826566824,0.5326103820040172,0.17006595993345985,0,0,1,0
0.7758942215068035,0.6133306165401767,0.7515111193412073,1,0,0,0
0.8048771884968179,0.4575918707187384,0.4465781341073497,0,0,0,1
0.522551615542295,0.9332084202151522,4.057027170177363e-2,0,1,0,0
0.2795336464432211,0.5935065862305299,0.31494518645864467,0,0,1,0
0.8976746224653632,0.9778944942681543,0.1835857900179242,0,1,0,0
0.9622549804270489,0.8569289559684251,0.8321468368395734,1,0,0,0
0.10929228643848832,0.5753919746060786,2.6650360551052743e-2,0,0,1,0
0.929686107814336,0.49066790163485663,0.8687976018106699,0,0,1,0
0.3819677910701681,0.8072338307588082,0.5075827532321654,0,0,0,1
0.1405505457008901,0.39116315951689906,0.6642974375639258,0,1,0,0
2.7702515875070444e-2,3.1054588299919472e-2,0.5078605625130016,0,1,0,0
0.19628608429270378,0.8412088280318645,0.14034391380186884,0,0,1,0
1.6854447396964511e-3,0.7992449712569621,0.4948387618775659,0,0,1,0
0.3437746829162557,0.6092517246408379,0.7374126444257884,0,0,0,1
0.353964846254084,0.49223958498741516,0.16399890412236584,1,0,0,0
0.140658083511353,0.14846022382101343,3.8908916373420754e-2,1,0,0,0
0.5108312472832431,0.6249536661194216,5.8436287931691866e-2,0,1,0,0
0.35157068527637614,6.240763190690368e-2,0.4088502885735884,1,0,0,0
0.40721459378652247,0.6260326002368818,0.8706515163248599,0,0,0,1
0.8565644514686136,0.9335972253504149,0.9025483657332002,1,0,0,0
4.09134929903302e-2,0.29049329572180127,0.27225111508606126,1,0,0,0
0.9664642196811292,0.874970845076183,0.9357987632990962,1,0,0,0
0.322336213738199,0.5472876673520198,0.5489102842872592,0,0,0,1
0.6669704928010566,0.9475801666689784,0.6576927538473808,1,0,0,0
0.29475589998771834,0.942686367597663,0.7033750077981528,0,0,0,1
0.3612933021777204,0.5486314850967601,8.087364948934594e-2,0,0,1,0
0.7685328528892544,8.970638358041139e-2,2.588042882039987e-2,0,0,0,1
0.5878830845579767,8.01470363467921e-2,0.9778943709467584,0,0,1,0
0.16230753606745918,0.39337464785967546,0.9538633547317473,0,1,0,0
0.998433360192399,0.3595407583089082,0.5733015694522235,0,0,1,0
0.23718204582318292,0.5671256585005812,1.1943528740376963e-2,0,0,1,0
0.7256440147731357,0.7383807922150901,0.4497734351779007,0,1,0,0
0.40406934042078546,0.3565803613965911,0.630904070229313,0,1,0,0
0.8531023460003834,0.9065367601972417,0.9273216015224003,1,0,0,0
0.38512632254096346,9.300904628339779e-2,1.8160540390094182e-3,1,0,0,0
1.7927249972823356e-3,0.7348844537207843,0.37569411935725594,0,0,1,0
0.2213432929986311,0.28368445627174077,6.253447286174574e-2,1,0,0,0
0.3953137669226653,0.30382523413018825,0.9898150163044318,0,1,0,0
0.5618067233442966,0.11762842553887676,0.9956789011922033,0,0,1,0
0.6920841779676911,0.232026664177846,0.12533092692730208,0,0,0,1
0.40118961322771474,0.714675480943764,0.9529706394785226,0,0,0,1
0.40050688118371947,0.5569955283009179,0.457333244441282,0,0,1,0
0.13333430566202253,0.4414856987961252,0.2712817488545195,1,0,0,0
0.7518250544097381,0.4286686652798456,0.8179242074859677,0,0,1,0
0.12125999292237044,0.3829708820974388,0.7731820851417875,0,1,0,0
0.3319739957680151,0.26456121968051993,0.2937095206327994,1,0,0,0
0.9817793496918198,0.6845688170445562,0.907139197523697,1,0,0,0
0.3534734092321564,0.7216822783128304,0.8777004612560734,0,0,0,1
0.10444436491291398,5.6826086191505865e-2,0.12683723678883785,1,0,0,0
0.11100469853987238,0.5248414156850024,0.8141339968695497,0,0,0,1
5.463005318028158e-2,0.3960106688231143,0.18899415718702117,1,0,0,0
0.5259117105881336,0.4278684088251631,0.8253599123373959,0,0,1,0
0.7851778182432801,0.9082210964278455,0.19427105920392906,0,1,0,0
0.8187712569094115,2.87610267074353e-2,0.5749216112175132,0,0,1,0
0.2503571430169881,0.18055479663127894,0.15412932057310058,1,0,0,0
0.7535081600730552,0.16897793112072945,0.6810180463508516,0,0,1,0
0.17329080553270704,0.9730574901159191,0.16068635540558918,0,0,1,0
0.8346758112152101,0.2577306600809691,0.7861378474891033,0,0,1,0
0.20186209012751688,0.5371984273497808,0.8750587355589764,0,0,0,1
0.1365014489643942,0.903118976357632,0.28014837592994557,0,0,1,0
0.9648679661017489,0.8935729169765153,0.2628579527439193,0,1,0,0
0.41876655970586973,0.8877923770429216,0.9412364618315473,0,0,0,1
0.11488128168138056,0.9790278571184899,0.6665992557496819,0,0,0,1
0.42096581963898416,0.10399738076056442,0.4229931385594826,1,0,0,0
0.5929686564036708,2.153848972092587e-3,7.682230714307592e-2,0,0,0,1
0.7723308042978413,0.3491348246628315,0.8051047771252319,0,0,1,0
0.8909826376837461,0.8934621839014926,0.14732448653685648,0,1,0,0
0.8757031859586172,0.7954176091442372,0.9604946116332486,1,0,0,0
0.855565530036081,0.6981667537231179,0.8529851949311408,1,0,0,0
0.8802856293320968,0.7258366628096481,0.5536443853694374,1,0,0,0
0.19780651591434395,0.3822378237434999,0.3249355624838667,1,0,0,0
0.26578423281620445,0.8304504158859088,0.6172495548558165,0,0,0,1
0.7663070576788019,6.694203938753718e-2,0.6943813643639422,0,0,1,0
0.4320774995177815,0.20459615271592624,0.22385315303381048,1,0,0,0
0.2515334251911677,0.9239843731520466,0.5647047786183258,0,0,0,1
0.63453808862543,0.5106658854597838,0.504470165239887,1,0,0,0
4.423102111420385e-3,0.4574874370629537,0.5950290080753801,0,1,0,0
0.934961882785808,0.28157826841182365,0.3196756468528553,0,0,0,1
0.9143175571150722,0.4325031406733083,0.9078378633003857,0,0,1,0
0.6634536979816142,0.8885777031694216,0.18578871142267206,0,1,0,0
0.49365942549002584,8.011990021536264e-2,0.7098772021401277,0,1,0,0
0.16244954504821407,0.7082971133212969,0.8994292280983208,0,0,0,1
0.5789544418036664,0.97762093436011,0.3093986080781995,0,1,0,0
0.3379480435231602,0.23354320093269243,0.27179194338830037,1,0,0,0
0.7728731610763072,9.157370569081613e-3,7.942434365457751e-2,0,0,0,1
0.2974083858544502,0.8805074848904783,0.5374881368440222,0,0,0,1
0.3267991086071217,0.7358323046064182,0.6952702541800665,0,0,0,1
0.18732959668183924,0.8497396936160874,0.20403029860855793,0,0,1,0
0.4454150015395838,0.5202837531985612,0.5068761483890839,0,0,0,1
0.594885241944063,0.8795120317395461,0.21743116011752928,0,1,0,0
0.36078275818850913,0.32039593330018745,0.9697988760692456,0,1,0,0
0.6033829126671707,0.6092633607752235,0.3447867524970675,0,1,0,0
8.444244398189127e-2,0.5464553161726856,2.094512161303197e-2,0,0,1,0
0.3613660687134982,0.27176183620601024,0.3726695315296643,1,0,0,0
7.281037389247047e-2,0.5845228095664675,0.23857413245669734,0,0,1,0
7.669965005230484e-2,0.47692676754911323,0.5385590223799192,0,1,0,0
0.35782764519480514,0.8936895036169418,0.42410574048601946,0,0,1,0
0.4100347582316072,0.5118816326387553,0.4974622061272246,0,0,1,0
0.2382036506245503,0.4783756737486965,8.844568153126786e-2,1,0,0,0
0.2563511162621085,2.595075833106475e-3,0.18080421582840034,1,0,0,0
0.33677165807737464,0.7825158299005494,0.9809914023136425,0,0,0,1
0.5888484049851498,0.9021822362518207,0.9311456162749553,1,0,0,0
0.5802455278384887,0.6866315005254954,0.9442418242314862,1,0,0,0
0.46194843005276554,0.4943157172521123,0.196981580890789,1,0,0,0
0.3157762874609077,0.8498371267319732,0.7667051845319391,0,0,0,1
0.10661515507179942,0.5787025366185506,0.27673205834481285,0,0,1,0
0.18254330115907835,0.575491544500245,0.24669679059139316,0,0,1,0
0.17568935866075608,0.14834668269009132,0.49695117014988244,1,0,0,0
0.5106681642960517,0.49552317997725115,0.317491697011972,0,0,0,1
0.6776951393887857,0.698068392806049,0.7657208813371238,1,0,0,0
0.24164113582802826,0.6470864939514306,1.1356352471444953e-2,0,0,1,0
0.6461931678972154,0.6947329208513203,0.9584578473596453,1,0,0,0
0.7274358309709229,0.2623596216994647,0.6043836605389766,0,0,1,0
3.441890870900577e-2,0.2752102231009478,0.9077562338184696,0,1,0,0
0.8567732507560636,0.359865649011302,0.9652572042293183,0,0,1,0
0.21622983012836883,0.13047886770248585,0.4423988101828292,1,0,0,0
0.7671524246509508,0.9817781715141481,0.43189156752033375,0,1,0,0
0.4781411809857742,7.567706074996916e-2,0.5635237042580622,0,1,0,0
0.8532028997467983,0.7230463408476048,0.7751390460345299,1,0,0,0
0.3066018390530142,0.6215561052364106,0.2884470664868314,0,0,1,0
0.966153725870229,0.9161652221628834,0.7310171837113421,1,0,0,0
0.9952805831329378,0.5909510623383097,0.5634227346687312,1,0,0,0
0.515437317915974,0.20908503082786012,0.46842417925650304,0,0,0,1
9.44078208132243e-2,0.6017667113152286,0.9615055645182525,0,0,0,1
0.7570917267744314,0.8200818500443915,0.75745780982932,1,0,0,0
0.6291941385116618,0.34664915068955826,0.6665542235454706,0,0,1,0
0.4494277181885248,0.5715185181856631,2.1574044134236803e-2,0,0,1,0
0.6975582758143238,0.18620776356461588,2.808377186219524e-2,0,0,0,1
0.6011325826457042,4.916506830184519e-3,0.6924823960255374,0,0,1,0
0.6098979948900803,0.272107235127789,0.19804555626248221,0,0,0,1
0.9517461321034136,0.4989471453814559,0.7271764204665357,0,0,1,0
0.46240891920556104,0.8121514541830036,0.5486907045982551,0,0,0,1
0.29977073289522005,0.6005647740768129,0.9959755231201809,0,0,0,1
0.598319577157154,0.5474922767366256,0.9817789809866219,1,0,0,0
0.4074759185538005,0.2870114054185747,0.5979275953684536,0,1,0,0
0.29801671954137066,0.22139387243735065,0.6392790410971719,0,1,0,0
0.6996342101272656,0.21682132194506754,0.7882639273822011,0,0,1,0
0.742131084599332,0.512205995038698,0.5317353684829428,1,0,0,0
0.9119298135443671,0.1516699042099331,0.4541134062615825,0,0,0,1
0.3513786169904215,0.7739081163218927,9.225336627966285e-2,0,0,1,0
0.17058583843119457,0.7533849249141725,0.8397114036264314,0,0,0,1
0.7672229937450988,0.5762891811025038,0.22601568614575263,0,1,0,0
0.8025472508544377,0.47178171702702143,0.3027581742439417,0,0,0,1
0.6538178306549637,0.8419732537951604,0.8013257481261463,1,0,0,0
1.4843174255080194e-2,0.6508854462859756,4.948793601239465e-2,0,0,1,0
0.6097639286604367,1.2594224059183756e-2,0.5591116533186798,0,0,1,0
0.1833149805598987,7.949518771145991e-2,0.7379685873111931,0,1,0,0
0.7094279260782269,0.4601034044806519,0.2795722902369039,0,0,0,1
6.629635833462877e-3,0.9570197516898852,0.3275509717456154,0,0,1,0
0.2582114383303652,0.4216745965394949,0.16432427962749563,1,0,0,0
0.8430057705243309,0.8091008797797609,0.638442419529936,1,0,0,0
0.13129037763010387,0.27987678830527674,2.318927981328278e-2,1,0,0,0
0.6495809655371058,0.44980982758678467,0.2612124580259142,0,0,0,1
0.9447984318994632,9.588723012783607e-2,0.990072015481308,0,0,1,0
0.23888166652106013,0.6534812633865866,0.26839052836459165,0,0,1,0
0.8563630646813868,0.8141280509965009,0.4620049482942309,0,1,0,0
0.7977709240215004,0.6767448606578924,0.3514286184045997,0,1,0,0
0.13192050453971593,0.5216158644568579,2.840602943942272e-2,0,0,1,0
0.4220601176062123,0.43447053272627,0.23102581517232468,1,0,0,0
0.7287356781348989,0.423912585050113,0.18053544457237936,0,0,0,1
0.8063081480041724,0.47819054007771455,0.14751760659359048,0,0,0,1
0.4965984396710018,0.46661858580695614,0.7069370667235714,0,1,0,0
0.2407136995475495,0.3389919754025482,0.12660596828193016,1,0,0,0
0.5053428299920603,0.515023785325612,0.2110313014753179,0,1,0,0
0.2525915551207095,0.43775446455810163,0.5772542741856409,0,1,0,0
0.8181783293329928,0.5151932972637429,0.9652721430811605,1,0,0,0
0.26765583231150203,0.544007599927837,5.9151747010244615e-2,0,0,1,0
0.7135033117546815,0.7748211753030864,0.4571697910051592,0,1,0,0
0.5965378944579468,0.9438623369678408,0.8060429951306464,1,0,0,0
0.9956914034771865,0.252375330319916,0.2440428313174855,0,0,0,1
0.7372083590366442,0.792174420827812,0.28955903471478506,0,1,0,0
3.999447678473966e-2,0.14156213635387027,0.15232695815342134,1,0,0,0
0.13536722314630623,0.29788373720956407,0.18698837485233588,1,0,0,0
0.22373750374250256,0.2769492147345419,0.19379546502476563,1,0,0,0
0.8331539529580215,0.25124791502652377,0.8226978941762343,0,0,1,0
0.5086195218245319,0.43816623308745284,0.40297578968038683,0,0,0,1
8.343917567006798e-2,0.9843133315275377,0.1892564750069251,0,0,1,0
0.6727111245879008,0.377305632016148,0.4250100178848101,0,0,0,1
0.3656847971868792,0.8275003404059832,0.6616710309815973,0,0,0,1
0.2007824457408388,4.8032213353968456e-2,0.16173600175378644,1,0,0,0
0.9311984005372625,0.6219570605214898,0.8428939333928037,1,0,0,0
0.4308521011310552,0.1475443129092905,0.32434112316269126,1,0,0,0
0.8235841486285075,0.9276721771361917,0.3809253907712752,0,1,0,0
0.23839567735653133,0.6665147295810662,0.7510973577752474,0,0,0,1
0.35118880824759124,0.1730789317317588,0.954663434426747,0,1,0,0
0.14378792026445086,0.7321056735462116,0.5445224758398078,0,0,0,1
0.4832763997491628,0.1551370346456421,0.6021874944680937,0,1,0,0
0.3682853048905169,0.5775337158586903,0.8512524737803754,0,0,0,1
0.47937066257136685,0.4154552278151963,0.6170658970055062,0,1,0,0
0.4391735819071806,0.7194336391132471,0.4023982539754086,0,0,1,0
0.5886478384535115,0.9533129416580753,0.970822046421722,1,0,0,0
0.18551154324778174,0.5645091967647792,0.7355572404993668,0,0,0,1
0.13720458865452556,5.0954347400491984e-2,0.229178974693934,1,0,0,0
0.5424607658488217,0.4230406000083341,0.3849657804165606,0,0,0,1
1.2478195197219821e-2,0.28865098154874624,0.2628034857074718,1,0,0,0
0.8315259494315818,0.6296208381134897,0.7370322476343266,1,0,0,0
0.7339761143968341,7.491560843779055e-2,0.4394645552209232,0,0,0,1
0.3619757766415018,4.425614534542388e-2,0.10643512952653789,1,0,0,0
0.7371928641334043,0.2903826232247152,0.4716016847167569,0,0,0,1
0.7873555669980922,0.17057135953417857,0.6896384737127058,0,0,1,0
0.6519301589571566,0.3586993634926908,0.764471614999063,0,0,1,0
0.6016107752140615,0.8452350179564462,0.826232304842785,1,0,0,0
0.49185854038349175,9.925273251382005e-2,0.6296530152234944,0,1,0,0
0.6050058869052767,0.6120644583590521,0.5516697735727506,1,0,0,0
0.17763878819507284,0.19034916483433972,0.730533740896805,0,1,0,0
0.18947264840968903,0.35108883539805624,0.11315967635149826,1,0,0,0
0.8441883602361683,0.10272376457784349,0.49141161020105917,0,0,0,1
0.2222633268322548,0.9318646454476579,0.5111537468997883,0,0,0,1
0.6280771179960781,0.30763394286210166,0.28833407811243406,0,0,0,1
0.19965646793581537,0.714194733407563,0.6198985260341429,0,0,0,1
0.24637100203409934,9.18207777130079e-2,0.2652324742522706,1,0,0,0
0.8214211538468562,0.3973010747028468,0.10367028352506413,0,0,0,1
0.16372187094405455,0.2334378800412268,3.246056755786697e-2,1,0,0,0
0.13712809920870483,0.613006894526473,0.17887070578492203,0,0,1,0
0.37532112681470753,0.13772511425162104,0.8876894305888062,0,1,0,0
0.6406247780329225,0.6737398216723466,0.562298669478582,1,0,0,0
0.2042007193567198,0.4441110821515334,0.9026588577054783,0,1,0,0
0.48106802112109504,0.7653528500600112,0.31314221333137204,0,0,1,0
0.1361582488837635,0.21622485522484192,0.26086466752561155,1,0,0,0
0.7608617837710333,0.37785981292939474,2.2563646813052896e-2,0,0,0,1
0.2145443618874766,0.773521205727043,0.10073498688920657,0,0,1,0
0.935575627759942,0.14813105176898123,0.4870415715381936,0,0,0,1
0.9541445756103503,0.8461032729209453,2.8820780727561224e-2,0,1,0,0
1.1406214091848055e-3,0.6791970578999152,0.9189693713874952,0,0,0,1
2.5010509104833267e-2,0.8390307926913806,0.5696739224402033,0,0,0,1
0.5623457031368456,0.6474878171178787,0.21013116935913356,0,1,0,0
0.7055373440230829,0.5816991322037944,0.23317823920297698,0,1,0,0
0.37547461591158837,0.20821786497302475,0.15319051811455708,1,0,0,0
0.8481155801798409,0.569917689425279,0.503519347973253,1,0,0,0
0.34254687165643116,0.46918415148928816,0.6716150989191391,0,1,0,0
0.8014933126285978,0.8331024331980047,0.8000887939723779,1,0,0,0
0.194819872476525,0.4109027939417319,0.5361128134401904,0,1,0,0
0.6197576901124117,0.5524057278300462,0.253026054564336,0,1,0,0
0.9829286752011305,0.12886619985776393,0.789191108042513,0,0,1,0
0.32075024802301766,1.236453455580555e-2,0.24762362723765052,1,0,0,0
0.4445239196490548,0.6525011195074263,0.20553933005887803,0,0,1,0
0.8265745070843097,0.6510464514789799,0.23613757889069353,0,1,0,0
0.6580294651079411,6.606686342881196e-3,0.12655755605828733,0,0,0,1
0.8687464630173506,0.9164792166260706,0.4412331736108762,0,1,0,0
0.9479623069078463,0.3687815290777229,1.0708066352337231e-2,0,0,0,1
0.7238648818112142,0.23082286381615613,0.21845528628165478,0,0,0,1
0.21613893106843107,0.33347337411710287,9.267721013263786e-3,1,0,0,0
0.1568487707216787,0.9097267826101124,0.5560255881828219,0,0,0,1
0.28132023346533785,0.794345652995799,0.7363212318552227,0,0,0,1
0.4715528458650927,0.9519287766476386,0.7529894952150856,0,0,0,1
0.6461661347437674,0.7104901107072955,0.9574044878018678,1,0,0,0
0.1932720951281307,0.24636326437735467,0.3087808615412967,1,0,0,0
0.6572778657115289,8.577872000098441e-2,0.6321489411086053,0,0,1,0
0.4768799428737117,8.42592014846083e-2,0.9437600048497984,0,1,0,0
0.9203374162627175,0.9645959426218526,0.3607272464713561,0,1,0,0
0.6818980206917035,0.3908996881171133,0.4436228492410531,0,0,0,1
0.6715157887298834,0.4212442616673949,0.19452995226832692,0,0,0,1
0.19483779995861938,0.915328326596618,0.29822651088861496,0,0,1,0
0.9259847621314342,0.28328115268070786,0.7580552065296887,0,0,1,0
0.8830459923990991,0.14129587529131726,0.5953189957841615,0,0,1,0
0.8576665148082173,0.7794183423228086,0.18818461425848587,0,1,0,0
0.7114393547332799,0.7375140281297085,0.5540770822526205,1,0,0,0
0.9601418307528095,0.17492191813174485,0.6436245922305218,0,0,1,0
0.5323259410901259,3.8395808745459115e-2,0.3680184438540125,0,0,0,1
8.338716234471033e-2,0.8696162351985136,5.762922276022586e-2,0,0,1,0
0.7355830643849705,1.7238012056360552e-2,0.46287405426879047,0,0,0,1
0.9574513069698248,0.6449288017013298,0.632157857145068,1,0,0,0
0.996237760134871,0.9834520253752371,0.8026313292620723,1,0,0,0
0.48961205230350313,0.28489170882916637,0.6663891056513419,0,1,0,0
0.13881447270244263,0.3454636414004256,0.7783971065030001,0,1,0,0
0.26638925265147273,0.35241713431001387,5.710354422738262e-3,1,0,0,0
0.8882939628774654,5.093332732679534e-3,0.6653244320686958,0,0,1,0
0.9498631522540127,0.8524702006415291,0.9028116871005146,1,0,0,0
0.5684201018967766,0.680903026588847,0.43467192411995825,0,1,0,0
0.5050374226211708,0.8696242858963811,0.8082950106122483,1,0,0,0
0.5623827451114044,0.30232909258926843,0.23022251536722294,0,0,0,1
9.86730626804061e-2,0.7444622160187638,0.6738312803308512,0,0,0,1
0.6126179880147041,0.3972793228655608,0.35982175596346655,0,0,0,1
1.010358260094446e-2,0.39489015084553236,0.4549963188432363,1,0,0,0
0.2827127003675668,0.6191384697454644,0.8031120963987429,0,0,0,1
0.5431732845220943,8.751906207915716e-2,0.9673967807403027,0,0,1,0
0.6902926661917267,0.14432377616657777,0.9850415960939781,0,0,1,0
9.397734555813553e-2,0.623201443165352,0.43760551843691997,0,0,1,0
0.217766977164069,0.6579412170134732,0.17639971053943848,0,0,1,0
0.19980250256023535,0.7445112222281477,0.4895894984062775,0,0,1,0
0.13900343816980854,0.24575036860931998,0.5217747197076509,0,1,0,0
0.2579569352275245,0.1375232659702158,0.7629956867421762,0,1,0,0
0.3156795499403885,0.8128524401038829,0.11345563275020731,0,0,1,0
0.9001858753389008,0.6030982362479688,4.5732971040194026e-2,0,1,0,0
0.4904315951425501,0.9360103030997039,0.3638526066182489,0,0,1,0
0.3122709957773765,0.4527301057646457,0.7331249675046451,0,1,0,0
0.15865701505276875,0.28023940333336783,0.34933219578784047,1,0,0,0
0.5637976733573006,0.8469177293552451,1.4103954986499079e-2,0,1,0,0
0.24219747248438883,0.3930089530760331,0.4271443600975521,1,0,0,0
2.531090642823197e-3,0.3134413193094788,0.24032505615453503,1,0,0,0
0.9292297379761826,0.8449491488758519,0.7766903303049112,1,0,0,0
0.11269256328509847,0.1283769556195521,0.16389616479626745,1,0,0,0
0.8657730074634918,0.555417830621216,0.6683801994474848,1,0,0,0
0.9236293461499067,0.42928854637657354,0.4664571228012343,0,0,0,1
0.7610231678408249,0.8637130721983693,0.553371471287399,1,0,0,0
4.446466917536529e-2,0.23080695285212804,0.21169514834644454,1,0,0,0
0.6699771804356006,5.584941353041317e-2,9.123205749522745e-4,0,0,0,1
0.5016251116615088,0.24482078928617568,0.6231284213912357,0,0,1,0
0.35566270023209146,7.95473697062371e-2,1.997448607243768e-2,1,0,0,0
0.23182640767542162,0.9514647769181818,0.7343336353139186,0,0,0,1
0.6103246024367116,8.745648060516198e-2,6.536228217355522e-2,0,0,0,1
0.2642975832866149,0.10543424435045845,0.6659616327546011,0,1,0,0
0.1792174041550002,0.7599185694308425,0.2840491975311653,0,0,1,0
0.5793577056411475,0.28882328466481344,0.4312093679333143,0,0,0,1
0.5067853371511869,0.3840085076405372,0.9512709775363638,0,0,1,0
0.733889667898992,0.49933762673721016,0.7108245166528787,0,0,1,0
0.5527466974351699,0.440200581681896,0.874908330516733,0,0,1,0
0.7428891547560873,0.5867776395305143,0.7351690753960701,1,0,0,0
